-1620.000000 -1876.000000 -132.000000
-1620.000000 -1878.000000 -132.000000
-1620.000000 -1880.000000 -132.000000
-1620.000000 -1882.000000 -132.000000
-1620.000000 -1884.000000 -132.000000
-1620.000000 -1886.000000 -132.000000
-1620.000000 -1888.000000 -132.000000
-1620.000000 -1890.000000 -132.000000
-1620.000000 -1892.000000 -132.000000
-1620.000000 -1894.000000 -132.000000
-1620.000000 -1896.000000 -132.000000
-1620.000000 -1898.000000 -132.000000
-1620.000000 -1900.000000 -132.000000
-1620.000000 -1902.000000 -132.000000
-1620.000000 -1904.000000 -132.000000
-1620.000000 -1906.000000 -132.000000
-1620.000000 -1908.000000 -132.000000
-1620.000000 -1910.000000 -132.000000
-1620.000000 -1912.000000 -132.000000
-1620.000000 -1914.000000 -132.000000
-1620.000000 -1916.000000 -132.000000
-1620.000000 -1918.000000 -132.000000
-1620.000000 -1920.000000 -132.000000
-1620.000000 -1922.000000 -132.000000
-1620.000000 -1924.000000 -132.000000
-1620.000000 -1926.000000 -132.000000
-1620.000000 -1928.000000 -132.000000
-1620.000000 -1930.000000 -132.000000
-1620.000000 -1932.000000 -132.000000
-1620.000000 -1934.000000 -132.000000
-1620.000000 -1936.000000 -132.000000
-1620.000000 -1938.000000 -132.000000
-1620.000000 -1940.000000 -132.000000
-1620.000000 -1942.000000 -132.000000
-1620.000000 -1944.000000 -132.000000
-1620.000000 -1946.000000 -132.000000
-1620.000000 -1948.000000 -132.000000
-1620.000000 -1950.000000 -132.000000
-1620.000000 -1952.000000 -132.000000
-1620.000000 -1954.000000 -132.000000
-1620.000000 -1956.000000 -132.000000
-1620.000000 -1958.000000 -132.000000
-1620.000000 -1960.000000 -132.000000
-1620.000000 -1962.000000 -132.000000
-1620.000000 -1964.000000 -132.000000
-1620.000000 -1966.000000 -132.000000
-1620.000000 -1968.000000 -132.000000
-1620.000000 -1970.000000 -132.000000
-1620.000000 -1972.000000 -132.000000
-1620.000000 -1974.000000 -132.000000
-1620.000000 -1976.000000 -132.000000
-1620.000000 -1978.000000 -132.000000
-1620.000000 -1980.000000 -132.000000
-1620.000000 -1982.000000 -132.000000
-1620.000000 -1984.000000 -132.000000
-1620.000000 -1986.000000 -132.000000
-1620.000000 -1988.000000 -132.000000
-1620.000000 -1990.000000 -132.000000
-1620.000000 -1992.000000 -132.000000
-1620.000000 -1994.000000 -132.000000
-1620.000000 -1996.000000 -132.000000
-1620.000000 -1998.000000 -132.000000
-1620.000000 -2000.000000 -132.000000
-1620.000000 -2002.000000 -132.000000
-1620.000000 -2004.000000 -132.000000
-1620.000000 -2006.000000 -132.000000
-1620.000000 -2008.000000 -132.000000
-1620.000000 -2010.000000 -132.000000
-1620.000000 -2012.000000 -132.000000
-1620.000000 -2014.000000 -132.000000
-1620.000000 -2016.000000 -132.000000
-1620.000000 -2018.000000 -132.000000
-1620.000000 -2020.000000 -132.000000
-1620.000000 -2022.000000 -132.000000
-1620.000000 -2024.000000 -132.000000
-1620.000000 -2026.000000 -132.000000
-1620.000000 -2028.000000 -132.000000
-1620.000000 -2030.000000 -132.000000
-1620.000000 -2032.000000 -132.000000
-1620.000000 -2034.000000 -132.000000
-1620.000000 -2036.000000 -132.000000
-1620.000000 -2038.000000 -132.000000
-1620.000000 -2040.000000 -132.000000
-1620.000000 -2042.000000 -132.000000
-1620.000000 -2044.000000 -132.000000
-1620.000000 -2046.000000 -132.000000
-1620.000000 -2048.000000 -132.000000
-1620.000000 -2050.000000 -132.000000
-1620.000000 -2052.000000 -132.000000
-1620.000000 -2054.000000 -132.000000
-1620.000000 -2056.000000 -132.000000
-1620.000000 -2058.000000 -132.000000
-1620.000000 -2060.000000 -132.000000
-1620.000000 -2062.000000 -132.000000
-1620.000000 -2064.000000 -132.000000
-1620.000000 -2066.000000 -132.000000
-1620.000000 -2068.000000 -132.000000
-1620.000000 -2070.000000 -132.000000
-1620.000000 -2072.000000 -132.000000
-1620.000000 -2074.000000 -132.000000
-1620.000000 -2076.000000 -132.000000
-1620.000000 -2078.000000 -132.000000
-1620.000000 -2080.000000 -132.000000
-1620.000000 -2082.000000 -132.000000
-1620.000000 -2084.000000 -132.000000
-1620.000000 -2086.000000 -132.000000
-1620.000000 -2088.000000 -132.000000
-1620.000000 -2090.000000 -132.000000
-1620.000000 -2092.000000 -132.000000
-1620.000000 -2094.000000 -132.000000
-1620.000000 -2096.000000 -132.000000
-1620.000000 -2098.000000 -132.000000
-1620.000000 -2100.000000 -132.000000
-1620.000000 -2102.000000 -132.000000
-1620.000000 -2104.000000 -132.000000
-1620.000000 -2106.000000 -132.000000
-1620.000000 -2108.000000 -132.000000
-1620.000000 -2110.000000 -132.000000
-1620.000000 -2112.000000 -132.000000
-1620.000000 -2114.000000 -132.000000
-1620.000000 -2116.000000 -132.000000
-1620.000000 -2118.000000 -132.000000
-1620.000000 -2120.000000 -132.000000
-1620.000000 -2122.000000 -132.000000
-1620.000000 -2124.000000 -132.000000
-1620.000000 -2126.000000 -132.000000
-1620.000000 -2128.000000 -132.000000
-1620.000000 -2130.000000 -132.000000
-1620.000000 -2132.000000 -132.000000
-1620.000000 -2134.000000 -132.000000
-1620.000000 -2136.000000 -132.000000
-1620.000000 -2138.000000 -132.000000
-1620.000000 -2140.000000 -132.000000
-1620.000000 -2142.000000 -132.000000
-1620.000000 -2144.000000 -132.000000
-1620.000000 -2146.000000 -132.000000
-1620.000000 -2148.000000 -132.000000
-1620.000000 -2150.000000 -132.000000
-1620.000000 -2152.000000 -132.000000
-1620.000000 -2154.000000 -132.000000
-1620.000000 -2156.000000 -132.000000
-1620.000000 -2158.000000 -132.000000
-1620.000000 -2160.000000 -132.000000
-1620.000000 -2162.000000 -132.000000
-1620.000000 -2164.000000 -132.000000
-1620.000000 -2166.000000 -132.000000
-1620.000000 -2168.000000 -132.000000
-1620.000000 -2170.000000 -132.000000
-1620.000000 -2172.000000 -132.000000
-1620.000000 -2174.000000 -132.000000
-1620.000000 -2176.000000 -132.000000
-1620.000000 -2178.000000 -132.000000
-1620.000000 -2180.000000 -132.000000
-1620.000000 -2182.000000 -132.000000
-1620.000000 -2184.000000 -132.000000
-1620.000000 -2186.000000 -132.000000
-1620.000000 -2188.000000 -132.000000
-1620.000000 -2190.000000 -132.000000
-1620.000000 -2192.000000 -132.000000
-1620.000000 -2194.000000 -132.000000
-1620.000000 -2196.000000 -132.000000
-1620.000000 -2198.000000 -132.000000
-1620.000000 -2200.000000 -132.000000
-1620.000000 -2202.000000 -132.000000
-1620.000000 -2204.000000 -132.000000
-1620.000000 -2206.000000 -132.000000
-1620.000000 -2208.000000 -132.000000
-1620.000000 -2210.000000 -132.000000
-1620.000000 -2212.000000 -132.000000
-1620.000000 -2214.000000 -132.000000
-1620.000000 -2216.000000 -132.000000
-1620.000000 -2218.000000 -132.000000
-1620.000000 -2220.000000 -132.000000
-1620.000000 -2222.000000 -132.000000
-1620.000000 -2224.000000 -132.000000
-1620.000000 -2226.000000 -132.000000
-1620.000000 -2228.000000 -132.000000
-1620.000000 -2230.000000 -132.000000
-1620.000000 -2232.000000 -132.000000
-1620.000000 -2234.000000 -132.000000
-1620.000000 -2236.000000 -132.000000
-1620.000000 -2238.000000 -132.000000
-1620.000000 -2240.000000 -132.000000
-1620.000000 -2242.000000 -132.000000
-1620.000000 -2244.000000 -132.000000
-1620.000000 -2246.000000 -132.000000
-1620.000000 -2248.000000 -132.000000
-1620.000000 -2250.000000 -132.000000
-1620.000000 -2252.000000 -132.000000
-1620.000000 -2254.000000 -132.000000
-1620.000000 -2256.000000 -132.000000
-1620.000000 -2258.000000 -132.000000
-1620.000000 -2260.000000 -132.000000
-1620.000000 -2262.000000 -132.000000
-1620.000000 -2264.000000 -132.000000
-1620.000000 -2266.000000 -132.000000
-1620.000000 -2268.000000 -132.000000
-1620.000000 -2270.000000 -132.000000
-1620.000000 -2272.000000 -132.000000
-1620.000000 -2274.000000 -132.000000
-1620.000000 -2276.000000 -132.000000
-1620.000000 -2278.000000 -132.000000
-1620.000000 -2280.000000 -132.000000
-1620.000000 -2282.000000 -132.000000
-1620.000000 -2284.000000 -132.000000
-1620.000000 -2286.000000 -132.000000
-1620.000000 -2288.000000 -132.000000
-1620.000000 -2290.000000 -132.000000
-1620.000000 -2292.000000 -132.000000
-1620.000000 -2294.000000 -132.000000
-1620.000000 -2296.000000 -132.000000
-1620.000000 -2298.000000 -132.000000
-1620.000000 -2300.000000 -132.000000
-1620.000000 -2302.000000 -132.000000
-1620.000000 -2304.000000 -132.000000
-1620.000000 -2306.000000 -132.000000
-1620.000000 -2308.000000 -132.000000
-1620.000000 -2310.000000 -132.000000
-1620.000000 -2312.000000 -132.000000
-1620.000000 -2314.000000 -132.000000
-1620.000000 -2316.000000 -132.000000
-1620.000000 -2318.000000 -132.000000
-1620.000000 -2320.000000 -132.000000
-1620.000000 -2322.000000 -132.000000
-1620.000000 -2324.000000 -132.000000
-1620.000000 -2326.000000 -132.000000
-1620.000000 -2328.000000 -132.000000
-1620.000000 -2330.000000 -132.000000
-1620.000000 -2332.000000 -132.000000
-1620.000000 -2334.000000 -132.000000
-1620.000000 -2336.000000 -132.000000
-1620.000000 -2338.000000 -132.000000
-1620.000000 -2340.000000 -132.000000
-1620.000000 -2342.000000 -132.000000
-1620.000000 -2344.000000 -132.000000
-1620.000000 -2346.000000 -132.000000
-1620.000000 -2348.000000 -132.000000
-1620.000000 -2350.000000 -132.000000
-1620.000000 -2352.000000 -132.000000
-1620.000000 -2354.000000 -132.000000
-1620.000000 -2356.000000 -132.000000
-1620.000000 -2358.000000 -132.000000
-1620.000000 -2360.000000 -132.000000
-1620.000000 -2362.000000 -132.000000
-1620.000000 -2364.000000 -132.000000
-1620.000000 -2366.000000 -132.000000
-1620.000000 -2368.000000 -132.000000
-1620.000000 -2370.000000 -132.000000
-1620.000000 -2372.000000 -132.000000
-1620.000000 -2374.000000 -132.000000
-1620.000000 -2376.000000 -132.000000
-1620.000000 -2378.000000 -132.000000
-1620.000000 -2380.000000 -132.000000
-1620.000000 -2382.000000 -132.000000
-1620.000000 -2384.000000 -132.000000
-1620.000000 -2386.000000 -132.000000
-1620.000000 -2388.000000 -132.000000
-1620.000000 -2390.000000 -132.000000
-1620.000000 -2392.000000 -132.000000
-1620.000000 -2394.000000 -132.000000
-1620.000000 -2396.000000 -132.000000
-1620.000000 -2398.000000 -132.000000
-1620.000000 -2400.000000 -132.000000
-1620.000000 -2402.000000 -132.000000
-1620.000000 -2404.000000 -132.000000
-1620.000000 -2406.000000 -132.000000
-1620.000000 -2408.000000 -132.000000
-1620.000000 -2410.000000 -132.000000
-1620.000000 -2412.000000 -132.000000
-1620.000000 -2414.000000 -132.000000
-1620.000000 -2416.000000 -132.000000
-1620.000000 -2418.000000 -132.000000
-1620.000000 -2420.000000 -132.000000
-1620.000000 -2422.000000 -132.000000
-1620.000000 -2424.000000 -132.000000
-1620.000000 -2426.000000 -132.000000
-1620.000000 -2428.000000 -132.000000
-1620.000000 -2430.000000 -132.000000
-1620.000000 -2432.000000 -132.000000
-1620.000000 -2434.000000 -132.000000
-1620.000000 -2436.000000 -132.000000
-1620.000000 -2438.000000 -132.000000
-1620.000000 -2440.000000 -132.000000
-1620.000000 -2442.000000 -132.000000
-1620.000000 -2444.000000 -132.000000
-1620.000000 -2446.000000 -132.000000
-1620.000000 -2448.000000 -132.000000
-1620.000000 -2450.000000 -132.000000
-1620.000000 -2452.000000 -132.000000
-1620.000000 -2454.000000 -132.000000
-1620.000000 -2456.000000 -132.000000
-1620.000000 -2458.000000 -132.000000
-1620.000000 -2460.000000 -132.000000
-1620.000000 -2462.000000 -132.000000
-1620.000000 -2464.000000 -132.000000
-1620.000000 -2466.000000 -132.000000
-1620.000000 -2468.000000 -132.000000
-1620.000000 -2470.000000 -132.000000
-1620.000000 -2472.000000 -132.000000
-1620.000000 -2474.000000 -132.000000
-1620.000000 -2476.000000 -132.000000
-1620.000000 -2478.000000 -132.000000
-1620.000000 -2480.000000 -132.000000
-1620.000000 -2482.000000 -132.000000
-1620.000000 -2484.000000 -132.000000
-1620.000000 -2486.000000 -132.000000
-1620.000000 -2488.000000 -132.000000
-1620.000000 -2490.000000 -132.000000
-1620.000000 -2492.000000 -132.000000
-1620.000000 -2494.000000 -132.000000
-1620.000000 -2496.000000 -132.000000
-1620.000000 -2498.000000 -132.000000
-1620.000000 -2500.000000 -132.000000
-1620.000000 -2502.000000 -132.000000
-1620.000000 -2504.000000 -132.000000
-1620.000000 -2506.000000 -132.000000
-1620.000000 -2508.000000 -132.000000
-1620.000000 -2510.000000 -132.000000
-1620.000000 -2512.000000 -132.000000
-1620.000000 -2514.000000 -132.000000
-1620.000000 -2516.000000 -132.000000
-1620.000000 -2518.000000 -132.000000
-1620.000000 -2520.000000 -132.000000
-1620.000000 -2522.000000 -132.000000
-1620.000000 -2524.000000 -132.000000
-1620.000000 -2526.000000 -132.000000
-1620.000000 -2528.000000 -132.000000
-1620.000000 -2530.000000 -132.000000
-1620.000000 -2532.000000 -132.000000
-1620.000000 -2534.000000 -132.000000
-1620.000000 -2536.000000 -132.000000
-1620.000000 -2538.000000 -132.000000
-1620.000000 -2540.000000 -132.000000
-1620.000000 -2542.000000 -132.000000
-1620.000000 -2544.000000 -132.000000
-1620.000000 -2546.000000 -132.000000
-1620.000000 -2548.000000 -132.000000
-1620.000000 -2550.000000 -132.000000
-1620.000000 -2552.000000 -132.000000
-1620.000000 -2554.000000 -132.000000
-1620.000000 -2556.000000 -132.000000
-1620.000000 -2558.000000 -132.000000
-1620.000000 -2560.000000 -132.000000
-1620.000000 -2562.000000 -132.000000
-1620.000000 -2564.000000 -132.000000
-1620.000000 -2566.000000 -132.000000
-1620.000000 -2568.000000 -132.000000
-1620.000000 -2570.000000 -132.000000
-1620.000000 -2572.000000 -132.000000
-1620.000000 -2574.000000 -132.000000
-1620.000000 -2576.000000 -132.000000
-1620.000000 -2578.000000 -132.000000
-1620.000000 -2580.000000 -132.000000
-1620.000000 -2582.000000 -132.000000
-1620.000000 -2584.000000 -132.000000
-1620.000000 -2586.000000 -132.000000
-1620.000000 -2588.000000 -132.000000
-1620.000000 -2590.000000 -132.000000
-1620.000000 -2592.000000 -132.000000
-1620.000000 -2594.000000 -132.000000
-1620.000000 -2596.000000 -132.000000
-1620.000000 -2598.000000 -132.000000
-1620.000000 -2600.000000 -132.000000
-1620.000000 -2602.000000 -132.000000
-1620.000000 -2604.000000 -132.000000
-1620.000000 -2606.000000 -132.000000
-1620.000000 -2608.000000 -132.000000
-1620.000000 -2610.000000 -132.000000
-1620.000000 -2612.000000 -132.000000
-1620.000000 -2614.000000 -132.000000
-1620.000000 -2616.000000 -132.000000
-1620.000000 -2618.000000 -132.000000
-1620.000000 -2620.000000 -132.000000
-1620.000000 -2622.000000 -132.000000
-1620.000000 -2624.000000 -132.000000
-1620.000000 -2626.000000 -132.000000
-1620.000000 -2628.000000 -132.000000
-1620.000000 -2630.000000 -132.000000
-1620.000000 -2632.000000 -132.000000
-1620.000000 -2634.000000 -132.000000
-1620.000000 -2636.000000 -132.000000
-1620.000000 -2638.000000 -132.000000
-1620.000000 -2640.000000 -132.000000
-1620.000000 -2642.000000 -132.000000
-1620.000000 -2644.000000 -132.000000
-1620.000000 -2646.000000 -132.000000
-1620.000000 -2648.000000 -132.000000
-1620.000000 -2650.000000 -132.000000
-1620.000000 -2652.000000 -132.000000
-1620.000000 -2656.000000 -132.000000
-1618.397316 -2657.187174 -131.851603
-1616.794631 -2658.374347 -131.703207
-1615.191947 -2659.561521 -131.554810
-1613.589262 -2660.748694 -131.406413
-1611.986578 -2661.935868 -131.258016
-1610.383894 -2663.123042 -131.109620
-1608.781209 -2664.310215 -130.961223
-1607.178525 -2665.497389 -130.812826
-1605.575841 -2666.684563 -130.664430
-1603.973156 -2667.871736 -130.516033
-1602.370472 -2669.058910 -130.367636
-1600.767787 -2670.246083 -130.219240
-1599.165103 -2671.433257 -130.070843
-1597.562419 -2672.620431 -129.922446
-1595.959734 -2673.807604 -129.774049
-1594.357050 -2674.994778 -129.625653
-1592.754366 -2676.181951 -129.477256
-1591.151681 -2677.369125 -129.328859
-1589.548997 -2678.556299 -129.180463
-1587.946312 -2679.743472 -129.032066
-1586.343628 -2680.930646 -128.883669
-1584.740944 -2682.117820 -128.735273
-1583.138259 -2683.304993 -128.586876
-1581.535575 -2684.492167 -128.438479
-1579.932890 -2685.679340 -128.290082
-1578.330206 -2686.866514 -128.141686
-1576.727522 -2688.053688 -127.993289
-1575.124837 -2689.240861 -127.844892
-1573.522153 -2690.428035 -127.696496
-1571.919469 -2691.615208 -127.548099
-1570.316784 -2692.802382 -127.399702
-1568.714100 -2693.989556 -127.251306
-1567.111415 -2695.176729 -127.102909
-1565.508731 -2696.363903 -126.954512
-1563.906047 -2697.551077 -126.806115
-1562.303362 -2698.738250 -126.657719
-1560.700678 -2699.925424 -126.509322
-1559.097994 -2701.112597 -126.360925
-1557.495309 -2702.299771 -126.212529
-1555.892625 -2703.486945 -126.064132
-1554.289940 -2704.674118 -125.915735
-1552.687256 -2705.861292 -125.767339
-1551.084572 -2707.048465 -125.618942
-1549.481887 -2708.235639 -125.470545
-1547.879203 -2709.422813 -125.322148
-1546.276518 -2710.609986 -125.173752
-1544.673834 -2711.797160 -125.025355
-1543.071150 -2712.984334 -124.876958
-1541.468465 -2714.171507 -124.728562
-1539.865781 -2715.358681 -124.580165
-1538.263097 -2716.545854 -124.431768
-1536.660412 -2717.733028 -124.283371
-1535.057728 -2718.920202 -124.134975
-1533.455043 -2720.107375 -123.986578
-1531.852359 -2721.294549 -123.838181
-1530.249675 -2722.481722 -123.689785
-1528.646990 -2723.668896 -123.541388
-1527.044306 -2724.856070 -123.392991
-1525.441622 -2726.043243 -123.244595
-1523.838937 -2727.230417 -123.096198
-1522.236253 -2728.417591 -122.947801
-1520.633568 -2729.604764 -122.799404
-1519.030884 -2730.791938 -122.651008
-1517.428200 -2731.979111 -122.502611
-1515.825515 -2733.166285 -122.354214
-1514.222831 -2734.353459 -122.205818
-1512.620146 -2735.540632 -122.057421
-1511.017462 -2736.727806 -121.909024
-1509.414778 -2737.914979 -121.760628
-1507.812093 -2739.102153 -121.612231
-1506.209409 -2740.289327 -121.463834
-1504.606725 -2741.476500 -121.315437
-1503.004040 -2742.663674 -121.167041
-1501.401356 -2743.850848 -121.018644
-1499.798671 -2745.038021 -120.870247
-1498.195987 -2746.225195 -120.721851
-1496.593303 -2747.412368 -120.573454
-1494.990618 -2748.599542 -120.425057
-1493.387934 -2749.786716 -120.276661
-1491.785250 -2750.973889 -120.128264
-1490.182565 -2752.161063 -119.979867
-1488.579881 -2753.348236 -119.831470
-1486.977196 -2754.535410 -119.683074
-1485.374512 -2755.722584 -119.534677
-1483.771828 -2756.909757 -119.386280
-1482.169143 -2758.096931 -119.237884
-1480.566459 -2759.284105 -119.089487
-1478.963774 -2760.471278 -118.941090
-1477.361090 -2761.658452 -118.792694
-1475.758406 -2762.845625 -118.644297
-1474.155721 -2764.032799 -118.495900
-1472.553037 -2765.219973 -118.347503
-1470.950353 -2766.407146 -118.199107
-1469.347668 -2767.594320 -118.050710
-1467.744984 -2768.781493 -117.902313
-1466.142299 -2769.968667 -117.753917
-1464.539615 -2771.155841 -117.605520
-1462.936931 -2772.343014 -117.457123
-1461.334246 -2773.530188 -117.308727
-1459.731562 -2774.717362 -117.160330
-1458.128878 -2775.904535 -117.011933
-1456.526193 -2777.091709 -116.863536
-1454.923509 -2778.278882 -116.715140
-1453.320824 -2779.466056 -116.566743
-1451.718140 -2780.653230 -116.418346
-1450.115456 -2781.840403 -116.269950
-1448.512771 -2783.027577 -116.121553
-1446.910087 -2784.214750 -115.973156
-1445.307402 -2785.401924 -115.824759
-1443.704718 -2786.589098 -115.676363
-1442.102034 -2787.776271 -115.527966
-1440.499349 -2788.963445 -115.379569
-1438.896665 -2790.150619 -115.231173
-1437.293981 -2791.337792 -115.082776
-1435.691296 -2792.524966 -114.934379
-1434.088612 -2793.712139 -114.785983
-1432.485927 -2794.899313 -114.637586
-1430.883243 -2796.086487 -114.489189
-1429.280559 -2797.273660 -114.340792
-1427.677874 -2798.460834 -114.192396
-1426.075190 -2799.648007 -114.043999
-1424.472506 -2800.835181 -113.895602
-1422.869821 -2802.022355 -113.747206
-1421.267137 -2803.209528 -113.598809
-1419.664452 -2804.396702 -113.450412
-1418.061768 -2805.583876 -113.302016
-1416.459084 -2806.771049 -113.153619
-1414.856399 -2807.958223 -113.005222
-1413.253715 -2809.145396 -112.856825
-1411.651030 -2810.332570 -112.708429
-1410.048346 -2811.519744 -112.560032
-1408.445662 -2812.706917 -112.411635
-1406.842977 -2813.894091 -112.263239
-1405.240293 -2815.081264 -112.114842
-1403.637609 -2816.268438 -111.966445
-1402.034924 -2817.455612 -111.818049
-1400.432240 -2818.642785 -111.669652
-1398.829555 -2819.829959 -111.521255
-1397.226871 -2821.017133 -111.372858
-1395.624187 -2822.204306 -111.224462
-1394.021502 -2823.391480 -111.076065
-1392.418818 -2824.578653 -110.927668
-1390.816134 -2825.765827 -110.779272
-1389.213449 -2826.953001 -110.630875
-1387.610765 -2828.140174 -110.482478
-1386.008080 -2829.327348 -110.334082
-1384.405396 -2830.514521 -110.185685
-1382.802712 -2831.701695 -110.037288
-1381.200027 -2832.888869 -109.888891
-1379.597343 -2834.076042 -109.740495
-1377.994658 -2835.263216 -109.592098
-1376.391974 -2836.450390 -109.443701
-1374.789290 -2837.637563 -109.295305
-1373.186605 -2838.824737 -109.146908
-1371.583921 -2840.011910 -108.998511
-1369.981237 -2841.199084 -108.850114
-1368.378552 -2842.386258 -108.701718
-1366.775868 -2843.573431 -108.553321
-1365.173183 -2844.760605 -108.404924
-1363.570499 -2845.947778 -108.256528
-1361.967815 -2847.134952 -108.108131
-1360.365130 -2848.322126 -107.959734
-1358.762446 -2849.509299 -107.811338
-1357.159762 -2850.696473 -107.662941
-1355.557077 -2851.883647 -107.514544
-1353.954393 -2853.070820 -107.366147
-1352.351708 -2854.257994 -107.217751
-1350.749024 -2855.445167 -107.069354
-1349.146340 -2856.632341 -106.920957
-1347.543655 -2857.819515 -106.772561
-1345.940971 -2859.006688 -106.624164
-1344.338286 -2860.193862 -106.475767
-1342.735602 -2861.381035 -106.327371
-1341.132918 -2862.568209 -106.178974
-1339.530233 -2863.755383 -106.030577
-1337.927549 -2864.942556 -105.882180
-1336.324865 -2866.129730 -105.733784
-1334.722180 -2867.316904 -105.585387
-1333.119496 -2868.504077 -105.436990
-1331.516811 -2869.691251 -105.288594
-1329.914127 -2870.878424 -105.140197
-1328.311443 -2872.065598 -104.991800
-1326.708758 -2873.252772 -104.843404
-1325.106074 -2874.439945 -104.695007
-1323.503390 -2875.627119 -104.546610
-1321.900705 -2876.814293 -104.398213
-1320.298021 -2878.001466 -104.249817
-1318.695336 -2879.188640 -104.101420
-1317.092652 -2880.375813 -103.953023
-1315.489968 -2881.562987 -103.804627
-1313.887283 -2882.750161 -103.656230
-1312.284599 -2883.937334 -103.507833
-1310.681914 -2885.124508 -103.359437
-1309.079230 -2886.311681 -103.211040
-1307.476546 -2887.498855 -103.062643
-1305.873861 -2888.686029 -102.914246
-1304.271177 -2889.873202 -102.765850
-1302.668493 -2891.060376 -102.617453
-1301.065808 -2892.247550 -102.469056
-1299.463124 -2893.434723 -102.320660
-1297.860439 -2894.621897 -102.172263
-1296.257755 -2895.809070 -102.023866
-1294.655071 -2896.996244 -101.875470
-1293.052386 -2898.183418 -101.727073
-1291.449702 -2899.370591 -101.578676
-1289.847018 -2900.557765 -101.430279
-1288.244333 -2901.744938 -101.281883
-1286.641649 -2902.932112 -101.133486
-1285.038964 -2904.119286 -100.985089
-1283.436280 -2905.306459 -100.836693
-1281.833596 -2906.493633 -100.688296
-1280.230911 -2907.680807 -100.539899
-1278.628227 -2908.867980 -100.391502
-1277.025542 -2910.055154 -100.243106
-1275.422858 -2911.242327 -100.094709
-1273.820174 -2912.429501 -99.946312
-1272.217489 -2913.616675 -99.797916
-1270.614805 -2914.803848 -99.649519
-1269.012121 -2915.991022 -99.501122
-1267.409436 -2917.178195 -99.352726
-1265.806752 -2918.365369 -99.204329
-1264.204067 -2919.552543 -99.055932
-1262.601383 -2920.739716 -98.907535
-1260.998699 -2921.926890 -98.759139
-1259.396014 -2923.114064 -98.610742
-1257.793330 -2924.301237 -98.462345
-1256.190646 -2925.488411 -98.313949
-1254.587961 -2926.675584 -98.165552
-1252.985277 -2927.862758 -98.017155
-1251.382592 -2929.049932 -97.868759
-1249.779908 -2930.237105 -97.720362
-1248.177224 -2931.424279 -97.571965
-1246.574539 -2932.611452 -97.423568
-1244.971855 -2933.798626 -97.275172
-1243.369170 -2934.985800 -97.126775
-1241.766486 -2936.172973 -96.978378
-1240.163802 -2937.360147 -96.829982
-1238.561117 -2938.547321 -96.681585
-1236.958433 -2939.734494 -96.533188
-1235.355749 -2940.921668 -96.384792
-1233.753064 -2942.108841 -96.236395
-1232.150380 -2943.296015 -96.087998
-1230.547695 -2944.483189 -95.939601
-1228.945011 -2945.670362 -95.791205
-1227.342327 -2946.857536 -95.642808
-1225.739642 -2948.044709 -95.494411
-1224.136958 -2949.231883 -95.346015
-1222.534273 -2950.419057 -95.197618
-1220.931589 -2951.606230 -95.049221
-1219.328905 -2952.793404 -94.900825
-1217.726220 -2953.980578 -94.752428
-1216.123536 -2955.167751 -94.604031
-1214.520852 -2956.354925 -94.455634
-1212.918167 -2957.542098 -94.307238
-1211.315483 -2958.729272 -94.158841
-1209.712798 -2959.916446 -94.010444
-1208.110114 -2961.103619 -93.862048
-1206.507430 -2962.290793 -93.713651
-1204.904745 -2963.477966 -93.565254
-1203.302061 -2964.665140 -93.416857
-1201.699377 -2965.852314 -93.268461
-1200.096692 -2967.039487 -93.120064
-1198.494008 -2968.226661 -92.971667
-1196.891323 -2969.413835 -92.823271
-1195.288639 -2970.601008 -92.674874
-1193.685955 -2971.788182 -92.526477
-1192.083270 -2972.975355 -92.378081
-1190.480586 -2974.162529 -92.229684
-1188.000000 -2976.000000 -92.000000
-1188.894427 -2977.788854 -92.000000
-1189.788854 -2979.577709 -92.000000
-1190.683282 -2981.366563 -92.000000
-1191.577709 -2983.155418 -92.000000
-1192.472136 -2984.944272 -92.000000
-1193.366563 -2986.733126 -92.000000
-1194.260990 -2988.521981 -92.000000
-1195.155418 -2990.310835 -92.000000
-1196.049845 -2992.099689 -92.000000
-1196.944272 -2993.888544 -92.000000
-1197.838699 -2995.677398 -92.000000
-1198.733126 -2997.466253 -92.000000
-1199.627553 -2999.255107 -92.000000
-1200.521981 -3001.043961 -92.000000
-1201.416408 -3002.832816 -92.000000
-1202.310835 -3004.621670 -92.000000
-1204.000000 -3008.000000 -92.000000
-1204.000000 -3010.000000 -92.000000
-1204.000000 -3012.000000 -92.000000
-1204.000000 -3014.000000 -92.000000
-1204.000000 -3016.000000 -92.000000
-1204.000000 -3018.000000 -92.000000
-1204.000000 -3020.000000 -92.000000
-1204.000000 -3022.000000 -92.000000
-1204.000000 -3024.000000 -92.000000
-1204.000000 -3026.000000 -92.000000
-1204.000000 -3028.000000 -92.000000
-1204.000000 -3030.000000 -92.000000
-1204.000000 -3032.000000 -92.000000
-1204.000000 -3034.000000 -92.000000
-1204.000000 -3036.000000 -92.000000
-1204.000000 -3038.000000 -92.000000
-1204.000000 -3040.000000 -92.000000
-1204.000000 -3042.000000 -92.000000
-1204.000000 -3044.000000 -92.000000
-1204.000000 -3046.000000 -92.000000
-1204.000000 -3048.000000 -92.000000
-1204.000000 -3050.000000 -92.000000
-1204.000000 -3052.000000 -92.000000
-1204.000000 -3054.000000 -92.000000
-1204.000000 -3056.000000 -92.000000
-1204.000000 -3058.000000 -92.000000
-1204.000000 -3060.000000 -92.000000
-1204.000000 -3062.000000 -92.000000
-1204.000000 -3064.000000 -92.000000
-1204.000000 -3066.000000 -92.000000
-1204.000000 -3068.000000 -92.000000
-1204.000000 -3070.000000 -92.000000
-1204.000000 -3072.000000 -92.000000
-1204.000000 -3074.000000 -92.000000
-1204.000000 -3076.000000 -92.000000
-1204.000000 -3078.000000 -92.000000
-1204.000000 -3080.000000 -92.000000
-1204.000000 -3082.000000 -92.000000
-1204.000000 -3084.000000 -92.000000
-1204.000000 -3086.000000 -92.000000
-1204.000000 -3088.000000 -92.000000
-1204.000000 -3090.000000 -92.000000
-1204.000000 -3092.000000 -92.000000
-1204.000000 -3094.000000 -92.000000
-1204.000000 -3096.000000 -92.000000
-1204.000000 -3098.000000 -92.000000
-1204.000000 -3100.000000 -92.000000
-1204.000000 -3102.000000 -92.000000
-1204.000000 -3104.000000 -92.000000
-1204.000000 -3106.000000 -92.000000
-1204.000000 -3108.000000 -92.000000
-1204.000000 -3110.000000 -92.000000
-1204.000000 -3112.000000 -92.000000
-1204.000000 -3114.000000 -92.000000
-1204.000000 -3116.000000 -92.000000
-1204.000000 -3118.000000 -92.000000
-1204.000000 -3120.000000 -92.000000
-1204.000000 -3122.000000 -92.000000
-1204.000000 -3124.000000 -92.000000
-1204.000000 -3126.000000 -92.000000
-1204.000000 -3128.000000 -92.000000
-1204.000000 -3130.000000 -92.000000
-1204.000000 -3132.000000 -92.000000
-1204.000000 -3134.000000 -92.000000
-1204.000000 -3136.000000 -92.000000
-1204.000000 -3138.000000 -92.000000
-1204.000000 -3140.000000 -92.000000
-1204.000000 -3142.000000 -92.000000
-1204.000000 -3144.000000 -92.000000
-1204.000000 -3146.000000 -92.000000
-1204.000000 -3148.000000 -92.000000
-1204.000000 -3150.000000 -92.000000
-1204.000000 -3152.000000 -92.000000
-1204.000000 -3154.000000 -92.000000
-1204.000000 -3156.000000 -92.000000
-1204.000000 -3158.000000 -92.000000
-1204.000000 -3160.000000 -92.000000
-1204.000000 -3162.000000 -92.000000
-1204.000000 -3164.000000 -92.000000
-1204.000000 -3166.000000 -92.000000
-1204.000000 -3168.000000 -92.000000
-1204.000000 -3170.000000 -92.000000
-1204.000000 -3172.000000 -92.000000
-1204.000000 -3174.000000 -92.000000
-1204.000000 -3176.000000 -92.000000
-1204.000000 -3178.000000 -92.000000
-1204.000000 -3180.000000 -92.000000
-1204.000000 -3182.000000 -92.000000
-1204.000000 -3184.000000 -92.000000
-1204.000000 -3186.000000 -92.000000
-1204.000000 -3188.000000 -92.000000
-1204.000000 -3190.000000 -92.000000
-1204.000000 -3192.000000 -92.000000
-1204.000000 -3194.000000 -92.000000
-1204.000000 -3196.000000 -92.000000
-1204.000000 -3198.000000 -92.000000
-1204.000000 -3200.000000 -92.000000
-1204.000000 -3202.000000 -92.000000
-1204.000000 -3204.000000 -92.000000
-1204.000000 -3206.000000 -92.000000
-1204.000000 -3208.000000 -92.000000
-1204.000000 -3210.000000 -92.000000
-1204.000000 -3212.000000 -92.000000
-1204.000000 -3214.000000 -92.000000
-1204.000000 -3216.000000 -92.000000
-1204.000000 -3218.000000 -92.000000
-1204.000000 -3220.000000 -92.000000
-1204.000000 -3222.000000 -92.000000
-1204.000000 -3224.000000 -92.000000
-1204.000000 -3226.000000 -92.000000
-1204.000000 -3228.000000 -92.000000
-1204.000000 -3230.000000 -92.000000
-1204.000000 -3232.000000 -92.000000
-1204.000000 -3234.000000 -92.000000
-1204.000000 -3236.000000 -92.000000
-1204.000000 -3238.000000 -92.000000
-1204.000000 -3240.000000 -92.000000
-1204.000000 -3242.000000 -92.000000
-1204.000000 -3244.000000 -92.000000
-1204.000000 -3246.000000 -92.000000
-1204.000000 -3248.000000 -92.000000
-1204.000000 -3250.000000 -92.000000
-1204.000000 -3252.000000 -92.000000
-1204.000000 -3254.000000 -92.000000
-1204.000000 -3256.000000 -92.000000
-1204.000000 -3258.000000 -92.000000
-1204.000000 -3260.000000 -92.000000
-1204.000000 -3262.000000 -92.000000
-1204.000000 -3264.000000 -92.000000
-1204.000000 -3266.000000 -92.000000
-1204.000000 -3268.000000 -92.000000
-1204.000000 -3270.000000 -92.000000
-1204.000000 -3272.000000 -92.000000
-1204.000000 -3274.000000 -92.000000
-1204.000000 -3276.000000 -92.000000
-1204.000000 -3278.000000 -92.000000
-1204.000000 -3280.000000 -92.000000
-1204.000000 -3282.000000 -92.000000
-1204.000000 -3284.000000 -92.000000
-1204.000000 -3286.000000 -92.000000
-1204.000000 -3288.000000 -92.000000
-1204.000000 -3290.000000 -92.000000
-1204.000000 -3292.000000 -92.000000
-1204.000000 -3294.000000 -92.000000
-1204.000000 -3296.000000 -92.000000
-1204.000000 -3298.000000 -92.000000
-1204.000000 -3300.000000 -92.000000
-1204.000000 -3302.000000 -92.000000
-1204.000000 -3304.000000 -92.000000
-1204.000000 -3306.000000 -92.000000
-1204.000000 -3308.000000 -92.000000
-1204.000000 -3310.000000 -92.000000
-1204.000000 -3312.000000 -92.000000
-1204.000000 -3314.000000 -92.000000
-1204.000000 -3316.000000 -92.000000
-1204.000000 -3318.000000 -92.000000
-1204.000000 -3320.000000 -92.000000
-1204.000000 -3322.000000 -92.000000
-1204.000000 -3324.000000 -92.000000
-1204.000000 -3326.000000 -92.000000
-1204.000000 -3328.000000 -92.000000
-1204.000000 -3330.000000 -92.000000
-1204.000000 -3332.000000 -92.000000
-1204.000000 -3334.000000 -92.000000
-1204.000000 -3336.000000 -92.000000
-1204.000000 -3338.000000 -92.000000
-1204.000000 -3340.000000 -92.000000
-1204.000000 -3342.000000 -92.000000
-1204.000000 -3344.000000 -92.000000
-1204.000000 -3346.000000 -92.000000
-1204.000000 -3348.000000 -92.000000
-1204.000000 -3350.000000 -92.000000
-1204.000000 -3352.000000 -92.000000
-1204.000000 -3354.000000 -92.000000
-1204.000000 -3356.000000 -92.000000
-1204.000000 -3358.000000 -92.000000
-1204.000000 -3360.000000 -92.000000
-1204.000000 -3362.000000 -92.000000
-1204.000000 -3364.000000 -92.000000
-1204.000000 -3366.000000 -92.000000
-1204.000000 -3368.000000 -92.000000
-1204.000000 -3370.000000 -92.000000
-1204.000000 -3372.000000 -92.000000
-1204.000000 -3374.000000 -92.000000
-1204.000000 -3376.000000 -92.000000
-1204.000000 -3378.000000 -92.000000
-1204.000000 -3380.000000 -92.000000
-1204.000000 -3382.000000 -92.000000
-1204.000000 -3384.000000 -92.000000
-1204.000000 -3386.000000 -92.000000
-1204.000000 -3388.000000 -92.000000
-1204.000000 -3392.000000 -92.000000
-1203.142172 -3393.613010 -91.186163
-1202.284344 -3395.226020 -90.372326
-1201.426516 -3396.839030 -89.558490
-1200.568688 -3398.452039 -88.744653
-1199.710860 -3400.065049 -87.930816
-1198.853032 -3401.678059 -87.116979
-1197.995204 -3403.291069 -86.303142
-1197.137376 -3404.904079 -85.489306
-1196.279548 -3406.517089 -84.675469
-1195.421720 -3408.130099 -83.861632
-1194.563892 -3409.743109 -83.047795
-1193.706064 -3411.356118 -82.233958
-1192.848236 -3412.969128 -81.420122
-1191.990408 -3414.582138 -80.606285
-1191.132580 -3416.195148 -79.792448
-1190.274752 -3417.808158 -78.978611
-1189.416924 -3419.421168 -78.164774
-1188.559096 -3421.034178 -77.350938
-1187.701268 -3422.647187 -76.537101
-1186.843440 -3424.260197 -75.723264
-1185.985613 -3425.873207 -74.909427
-1185.127785 -3427.486217 -74.095590
-1184.269957 -3429.099227 -73.281754
-1183.412129 -3430.712237 -72.467917
-1182.554301 -3432.325247 -71.654080
-1181.696473 -3433.938257 -70.840243
-1180.838645 -3435.551266 -70.026406
-1179.980817 -3437.164276 -69.212570
-1179.122989 -3438.777286 -68.398733
-1178.265161 -3440.390296 -67.584896
-1177.407333 -3442.003306 -66.771059
-1176.549505 -3443.616316 -65.957223
-1175.691677 -3445.229326 -65.143386
-1174.833849 -3446.842336 -64.329549
-1173.976021 -3448.455345 -63.515712
-1173.118193 -3450.068355 -62.701875
-1172.260365 -3451.681365 -61.888039
-1171.402537 -3453.294375 -61.074202
-1170.544709 -3454.907385 -60.260365
-1169.686881 -3456.520395 -59.446528
-1168.829053 -3458.133405 -58.632691
-1167.971225 -3459.746414 -57.818855
-1167.113397 -3461.359424 -57.005018
-1166.255569 -3462.972434 -56.191181
-1165.397741 -3464.585444 -55.377344
-1164.539913 -3466.198454 -54.563507
-1163.682085 -3467.811464 -53.749671
-1162.824257 -3469.424474 -52.935834
-1161.966429 -3471.037484 -52.121997
-1161.108601 -3472.650493 -51.308160
-1160.250773 -3474.263503 -50.494323
-1159.392945 -3475.876513 -49.680487
-1158.535117 -3477.489523 -48.866650
-1157.677289 -3479.102533 -48.052813
-1156.819461 -3480.715543 -47.238976
-1155.961633 -3482.328553 -46.425139
-1155.103805 -3483.941562 -45.611303
-1154.245977 -3485.554572 -44.797466
-1153.388149 -3487.167582 -43.983629
-1152.530321 -3488.780592 -43.169792
-1151.672494 -3490.393602 -42.355955
-1150.814666 -3492.006612 -41.542119
-1149.956838 -3493.619622 -40.728282
-1149.099010 -3495.232632 -39.914445
-1148.241182 -3496.845641 -39.100608
-1147.383354 -3498.458651 -38.286771
-1146.525526 -3500.071661 -37.472935
-1145.667698 -3501.684671 -36.659098
-1144.809870 -3503.297681 -35.845261
-1143.952042 -3504.910691 -35.031424
-1143.094214 -3506.523701 -34.217587
-1142.236386 -3508.136710 -33.403751
-1141.378558 -3509.749720 -32.589914
-1140.520730 -3511.362730 -31.776077
-1139.662902 -3512.975740 -30.962240
-1138.805074 -3514.588750 -30.148403
-1137.947246 -3516.201760 -29.334567
-1137.089418 -3517.814770 -28.520730
-1136.231590 -3519.427780 -27.706893
-1135.373762 -3521.040789 -26.893056
-1134.515934 -3522.653799 -26.079219
-1133.658106 -3524.266809 -25.265383
-1132.800278 -3525.879819 -24.451546
-1131.942450 -3527.492829 -23.637709
-1131.084622 -3529.105839 -22.823872
-1130.226794 -3530.718849 -22.010035
-1129.368966 -3532.331858 -21.196199
-1128.511138 -3533.944868 -20.382362
-1127.653310 -3535.557878 -19.568525
-1126.795482 -3537.170888 -18.754688
-1125.937654 -3538.783898 -17.940851
-1125.079826 -3540.396908 -17.127015
-1124.221998 -3542.009918 -16.313178
-1123.364170 -3543.622928 -15.499341
-1122.506342 -3545.235937 -14.685504
-1121.648514 -3546.848947 -13.871668
-1120.790686 -3548.461957 -13.057831
-1119.932858 -3550.074967 -12.243994
-1119.075030 -3551.687977 -11.430157
-1118.217202 -3553.300987 -10.616320
-1117.359375 -3554.913997 -9.802484
-1116.501547 -3556.527007 -8.988647
-1115.643719 -3558.140016 -8.174810
-1114.785891 -3559.753026 -7.360973
-1113.928063 -3561.366036 -6.547136
-1113.070235 -3562.979046 -5.733300
-1112.212407 -3564.592056 -4.919463
-1111.354579 -3566.205066 -4.105626
-1110.496751 -3567.818076 -3.291789
-1109.638923 -3569.431085 -2.477952
-1108.781095 -3571.044095 -1.664116
-1107.923267 -3572.657105 -0.850279
-1107.065439 -3574.270115 -0.036442
-1106.207611 -3575.883125 0.777395
-1105.349783 -3577.496135 1.591232
-1104.491955 -3579.109145 2.405068
-1103.634127 -3580.722155 3.218905
-1102.776299 -3582.335164 4.032742
-1101.918471 -3583.948174 4.846579
-1101.060643 -3585.561184 5.660416
-1100.202815 -3587.174194 6.474252
-1099.344987 -3588.787204 7.288089
-1098.487159 -3590.400214 8.101926
-1097.629331 -3592.013224 8.915763
-1096.771503 -3593.626233 9.729600
-1095.913675 -3595.239243 10.543436
-1095.055847 -3596.852253 11.357273
-1094.198019 -3598.465263 12.171110
-1093.340191 -3600.078273 12.984947
-1092.482363 -3601.691283 13.798784
-1091.624535 -3603.304293 14.612620
-1090.766707 -3604.917303 15.426457
-1089.908879 -3606.530312 16.240294
-1089.051051 -3608.143322 17.054131
-1088.193223 -3609.756332 17.867968
-1087.335395 -3611.369342 18.681804
-1086.477567 -3612.982352 19.495641
-1085.619739 -3614.595362 20.309478
-1084.761911 -3616.208372 21.123315
-1083.904083 -3617.821381 21.937152
-1083.046256 -3619.434391 22.750988
-1082.188428 -3621.047401 23.564825
-1081.330600 -3622.660411 24.378662
-1080.472772 -3624.273421 25.192499
-1079.614944 -3625.886431 26.006336
-1078.757116 -3627.499441 26.820172
-1077.899288 -3629.112451 27.634009
-1077.041460 -3630.725460 28.447846
-1076.183632 -3632.338470 29.261683
-1075.325804 -3633.951480 30.075520
-1074.467976 -3635.564490 30.889356
-1073.610148 -3637.177500 31.703193
-1072.752320 -3638.790510 32.517030
-1071.894492 -3640.403520 33.330867
-1071.036664 -3642.016529 34.144704
-1070.178836 -3643.629539 34.958540
-1069.321008 -3645.242549 35.772377
-1068.463180 -3646.855559 36.586214
-1067.605352 -3648.468569 37.400051
-1066.747524 -3650.081579 38.213887
-1065.889696 -3651.694589 39.027724
-1065.031868 -3653.307599 39.841561
-1064.174040 -3654.920608 40.655398
-1063.316212 -3656.533618 41.469235
-1062.458384 -3658.146628 42.283071
-1061.600556 -3659.759638 43.096908
-1060.742728 -3661.372648 43.910745
-1059.884900 -3662.985658 44.724582
-1059.027072 -3664.598668 45.538419
-1058.169244 -3666.211678 46.352255
-1057.311416 -3667.824687 47.166092
-1056.453588 -3669.437697 47.979929
-1055.595760 -3671.050707 48.793766
-1054.737932 -3672.663717 49.607603
-1053.880104 -3674.276727 50.421439
-1053.022276 -3675.889737 51.235276
-1052.164448 -3677.502747 52.049113
-1051.306620 -3679.115756 52.862950
-1050.448792 -3680.728766 53.676787
-1049.590964 -3682.341776 54.490623
-1048.733137 -3683.954786 55.304460
-1047.875309 -3685.567796 56.118297
-1047.017481 -3687.180806 56.932134
-1046.159653 -3688.793816 57.745971
-1045.301825 -3690.406826 58.559807
-1044.443997 -3692.019835 59.373644
-1043.586169 -3693.632845 60.187481
-1042.728341 -3695.245855 61.001318
-1041.870513 -3696.858865 61.815155
-1041.012685 -3698.471875 62.628991
-1040.154857 -3700.084885 63.442828
-1039.297029 -3701.697895 64.256665
-1038.439201 -3703.310904 65.070502
-1037.581373 -3704.923914 65.884339
-1036.723545 -3706.536924 66.698175
-1035.865717 -3708.149934 67.512012
-1035.007889 -3709.762944 68.325849
-1034.150061 -3711.375954 69.139686
-1033.292233 -3712.988964 69.953523
-1032.434405 -3714.601974 70.767359
-1031.576577 -3716.214983 71.581196
-1030.718749 -3717.827993 72.395033
-1029.860921 -3719.441003 73.208870
-1029.003093 -3721.054013 74.022707
-1028.145265 -3722.667023 74.836543
-1027.287437 -3724.280033 75.650380
-1026.429609 -3725.893043 76.464217
-1025.571781 -3727.506052 77.278054
-1024.713953 -3729.119062 78.091891
-1023.856125 -3730.732072 78.905727
-1022.998297 -3732.345082 79.719564
-1022.140469 -3733.958092 80.533401
-1021.282641 -3735.571102 81.347238
-1020.424813 -3737.184112 82.161075
-1019.566985 -3738.797122 82.974911
-1018.709157 -3740.410131 83.788748
-1017.851329 -3742.023141 84.602585
-1016.993501 -3743.636151 85.416422
-1016.135673 -3745.249161 86.230259
-1015.277845 -3746.862171 87.044095
-1014.420018 -3748.475181 87.857932
-1013.562190 -3750.088191 88.671769
-1012.704362 -3751.701200 89.485606
-1011.846534 -3753.314210 90.299442
-1010.988706 -3754.927220 91.113279
-1010.130878 -3756.540230 91.927116
-1009.273050 -3758.153240 92.740953
-1008.415222 -3759.766250 93.554790
-1007.557394 -3761.379260 94.368626
-1006.699566 -3762.992270 95.182463
-1005.841738 -3764.605279 95.996300
-1004.983910 -3766.218289 96.810137
-1004.126082 -3767.831299 97.623974
-1003.268254 -3769.444309 98.437810
-1002.410426 -3771.057319 99.251647
-1001.552598 -3772.670329 100.065484
-1000.694770 -3774.283339 100.879321
-999.836942 -3775.896349 101.693158
-998.979114 -3777.509358 102.506994
-998.121286 -3779.122368 103.320831
-997.263458 -3780.735378 104.134668
-996.405630 -3782.348388 104.948505
-995.547802 -3783.961398 105.762342
-994.689974 -3785.574408 106.576178
-993.832146 -3787.187418 107.390015
-992.974318 -3788.800427 108.203852
-992.116490 -3790.413437 109.017689
-991.258662 -3792.026447 109.831526
-990.400834 -3793.639457 110.645362
-989.543006 -3795.252467 111.459199
-988.685178 -3796.865477 112.273036
-987.827350 -3798.478487 113.086873
-986.969522 -3800.091497 113.900710
-986.111694 -3801.704506 114.714546
-985.253866 -3803.317516 115.528383
-984.396038 -3804.930526 116.342220
-983.538210 -3806.543536 117.156057
-982.680382 -3808.156546 117.969894
-981.822554 -3809.769556 118.783730
-980.964726 -3811.382566 119.597567
-980.106899 -3812.995575 120.411404
-979.249071 -3814.608585 121.225241
-978.391243 -3816.221595 122.039078
-977.533415 -3817.834605 122.852914
-976.675587 -3819.447615 123.666751
-975.817759 -3821.060625 124.480588
-974.959931 -3822.673635 125.294425
-974.102103 -3824.286645 126.108262
-973.244275 -3825.899654 126.922098
-972.386447 -3827.512664 127.735935
-971.528619 -3829.125674 128.549772
-970.670791 -3830.738684 129.363609
-969.812963 -3832.351694 130.177446
-968.955135 -3833.964704 130.991282
-968.097307 -3835.577714 131.805119
-967.239479 -3837.190723 132.618956
-966.381651 -3838.803733 133.432793
-965.523823 -3840.416743 134.246630
-964.665995 -3842.029753 135.060466
-963.808167 -3843.642763 135.874303
-962.950339 -3845.255773 136.688140
-962.092511 -3846.868783 137.501977
-961.234683 -3848.481793 138.315814
-960.376855 -3850.094802 139.129650
-959.519027 -3851.707812 139.943487
-958.661199 -3853.320822 140.757324
-957.803371 -3854.933832 141.571161
-956.945543 -3856.546842 142.384997
-956.087715 -3858.159852 143.198834
-955.229887 -3859.772862 144.012671
-954.372059 -3861.385871 144.826508
-953.514231 -3862.998881 145.640345
-952.656403 -3864.611891 146.454181
-951.798575 -3866.224901 147.268018
-950.940747 -3867.837911 148.081855
-950.082919 -3869.450921 148.895692
-949.225091 -3871.063931 149.709529
-948.367263 -3872.676941 150.523365
-947.509435 -3874.289950 151.337202
-946.651607 -3875.902960 152.151039
-945.793780 -3877.515970 152.964876
-944.935952 -3879.128980 153.778713
-944.078124 -3880.741990 154.592549
-943.220296 -3882.355000 155.406386
-942.362468 -3883.968010 156.220223
-941.504640 -3885.581020 157.034060
-940.646812 -3887.194029 157.847897
-939.788984 -3888.807039 158.661733
-938.931156 -3890.420049 159.475570
-938.073328 -3892.033059 160.289407
-937.215500 -3893.646069 161.103244
-936.357672 -3895.259079 161.917081
-935.499844 -3896.872089 162.730917
-934.642016 -3898.485098 163.544754
-933.784188 -3900.098108 164.358591
-932.926360 -3901.711118 165.172428
-932.068532 -3903.324128 165.986265
-931.210704 -3904.937138 166.800101
-930.352876 -3906.550148 167.613938
-929.495048 -3908.163158 168.427775
-928.637220 -3909.776168 169.241612
-927.779392 -3911.389177 170.055449
-926.921564 -3913.002187 170.869285
-926.063736 -3914.615197 171.683122
-925.205908 -3916.228207 172.496959
-924.348080 -3917.841217 173.310796
-923.490252 -3919.454227 174.124633
-922.632424 -3921.067237 174.938469
-921.774596 -3922.680246 175.752306
-920.916768 -3924.293256 176.566143
-920.058940 -3925.906266 177.379980
-919.201112 -3927.519276 178.193817
-918.343284 -3929.132286 179.007653
-917.485456 -3930.745296 179.821490
-916.627628 -3932.358306 180.635327
-915.769800 -3933.971316 181.449164
-914.911972 -3935.584325 182.263001
-914.054144 -3937.197335 183.076837
-913.196316 -3938.810345 183.890674
-912.338488 -3940.423355 184.704511
-911.480660 -3942.036365 185.518348
-910.622833 -3943.649375 186.332185
-909.765005 -3945.262385 187.146021
-908.907177 -3946.875394 187.959858
-908.049349 -3948.488404 188.773695
-907.191521 -3950.101414 189.587532
-906.333693 -3951.714424 190.401369
-905.475865 -3953.327434 191.215205
-904.618037 -3954.940444 192.029042
-903.760209 -3956.553454 192.842879
-902.902381 -3958.166464 193.656716
-902.044553 -3959.779473 194.470552
-901.186725 -3961.392483 195.284389
-900.328897 -3963.005493 196.098226
-899.471069 -3964.618503 196.912063
-898.613241 -3966.231513 197.725900
-897.755413 -3967.844523 198.539736
-896.897585 -3969.457533 199.353573
-896.039757 -3971.070542 200.167410
-895.181929 -3972.683552 200.981247
-894.324101 -3974.296562 201.795084
-893.466273 -3975.909572 202.608920
-892.608445 -3977.522582 203.422757
-891.750617 -3979.135592 204.236594
-890.892789 -3980.748602 205.050431
-890.034961 -3982.361612 205.864268
-889.177133 -3983.974621 206.678104
-888.319305 -3985.587631 207.491941
-887.461477 -3987.200641 208.305778
-886.603649 -3988.813651 209.119615
-885.745821 -3990.426661 209.933452
-884.887993 -3992.039671 210.747288
-884.030165 -3993.652681 211.561125
-883.172337 -3995.265691 212.374962
-882.314509 -3996.878700 213.188799
-881.456681 -3998.491710 214.002636
-880.598853 -4000.104720 214.816472
-879.741025 -4001.717730 215.630309
-878.883197 -4003.330740 216.444146
-878.025369 -4004.943750 217.257983
-877.167541 -4006.556760 218.071820
-876.309714 -4008.169769 218.885656
-875.451886 -4009.782779 219.699493
-874.594058 -4011.395789 220.513330
-873.736230 -4013.008799 221.327167
-872.878402 -4014.621809 222.141004
-872.020574 -4016.234819 222.954840
-871.162746 -4017.847829 223.768677
-870.304918 -4019.460839 224.582514
-869.447090 -4021.073848 225.396351
-868.589262 -4022.686858 226.210188
-867.731434 -4024.299868 227.024024
-866.873606 -4025.912878 227.837861
-866.015778 -4027.525888 228.651698
-865.157950 -4029.138898 229.465535
-864.300122 -4030.751908 230.279372
-863.442294 -4032.364917 231.093208
-862.584466 -4033.977927 231.907045
-861.726638 -4035.590937 232.720882
-860.868810 -4037.203947 233.534719
-860.010982 -4038.816957 234.348556
-859.153154 -4040.429967 235.162392
-858.295326 -4042.042977 235.976229
-857.437498 -4043.655987 236.790066
-856.579670 -4045.268996 237.603903
-855.721842 -4046.882006 238.417740
-854.864014 -4048.495016 239.231576
-854.006186 -4050.108026 240.045413
-853.148358 -4051.721036 240.859250
-852.290530 -4053.334046 241.673087
-851.432702 -4054.947056 242.486924
-850.574874 -4056.560065 243.300760
-849.717046 -4058.173075 244.114597
-848.859218 -4059.786085 244.928434
-848.001390 -4061.399095 245.742271
-847.143562 -4063.012105 246.556107
-846.285734 -4064.625115 247.369944
-845.427906 -4066.238125 248.183781
-844.570078 -4067.851135 248.997618
-843.712250 -4069.464144 249.811455
-842.854422 -4071.077154 250.625291
-841.996595 -4072.690164 251.439128
